957847.94 1843009.94 38.77 
957841.17 1843028.58 39.57 
957835.66 1843052.4 39.84 
957862.09 1843022.84 38.02 
957864.15 1843001.73 37.44 
957865.38 1842980.51 33.52 
957852.6 1843068.04 38.71 
957857.63 1843045.15 38.7 
957798.13 1843016.33 40.04 
957825.88 1843006.19 39.72 
957817.84 1843034.97 39.99 
957632.48 1844057.84 44.57 
957641.33 1844059.87 40.5 
957650.18 1844061.9 39.36 
957659.03 1844063.93 39.4 
957667.89 1844065.96 39.41 
957926.84 1844072.03 43.12 
957936.38 1844066.86 42.97 
957945.92 1844061.7 43.64 
957955.45 1844056.53 50.71 
957964.99 1844051.37 65.77 
958053.47 1843625.77 36.54 
958037.46 1843633.31 35.54 
958022.93 1843637.26 35.49 
958008.41 1843641.22 35.5 
957993.89 1843645.18 35.61 
957977.98 1843651.66 35.85 
957962.06 1843658.14 35.95 
957946.14 1843664.61 36.06 
957926.18 1843676.13 36.77 
957906.22 1843687.65 37.18 
957886.25 1843699.16 37.16 
957865.63 1843709.3 36.7 
957845.0 1843719.44 36.68 
957824.37 1843729.58 36.8 
957813.96 1843741.59 36.99 
957803.56 1843753.6 37.15 
957793.15 1843765.6 37.13 
957790.42 1843783.34 37.44 
957787.68 1843801.07 38.06 
957784.95 1843818.81 38.87 
957782.74 1843840.08 39.02 
957780.53 1843861.35 41.75 
957778.33 1843882.62 44.92 
957773.03 1843901.96 44.44 
957767.73 1843921.31 49.71 
957762.43 1843940.66 51.14 
957750.34 1843955.68 52.05 
957738.24 1843970.69 52.05 
957726.15 1843985.71 51.39 
957713.34 1843996.71 49.82 
957700.53 1844007.72 39.5 
957687.73 1844018.72 38.83 
957681.11 1844034.47 39.02 
957674.5 1844050.22 39.18 
958041.54 1843618.47 35.27 
958026.47 1843625.45 35.34 
958012.66 1843630.08 35.4 
957998.74 1843634.45 35.49 
957984.84 1843638.85 35.59 
957967.5 1843645.79 35.68 
957950.26 1843653.03 35.77 
957933.06 1843660.36 35.98 
957913.31 1843671.41 36.04 
957893.57 1843682.49 36.37 
957873.83 1843693.57 36.33 
957853.67 1843703.73 36.46 
957834.2 1843714.4 36.61 
957814.73 1843725.08 36.75 
957803.09 1843737.0 36.9 
957793.93 1843750.29 37.01 
957784.76 1843763.58 37.03 
957781.46 1843781.22 37.09 
957778.77 1843799.11 37.19 
957776.08 1843816.99 37.31 
957773.77 1843837.54 37.65 
957771.47 1843858.08 38.24 
957769.19 1843879.29 39.83 
957764.73 1843899.09 40.53 
957759.86 1843918.79 46.57 
957753.63 1843937.49 50.0 
957742.41 1843952.91 49.79 
957729.97 1843966.98 49.51 
957717.53 1843981.06 45.65 
957704.98 1843992.53 38.67 
957692.21 1844004.3 38.66 
957679.44 1844016.06 38.86 
957671.35 1844031.35 39.03 
957665.19 1844047.64 39.19 
958029.6 1843611.18 35.2 
958015.5 1843617.62 35.29 
958002.32 1843622.71 35.38 
957989.0 1843627.45 35.47 
957975.7 1843632.23 35.55 
957957.01 1843639.87 35.64 
957938.45 1843647.92 35.76 
957919.95 1843656.08 35.87 
957900.43 1843666.69 36.05 
957880.92 1843677.33 36.19 
957861.42 1843687.98 36.34 
957841.68 1843698.1 36.52 
957823.33 1843709.25 36.64 
957804.99 1843720.39 36.83 
957791.98 1843732.27 36.91 
957784.16 1843746.9 37.0 
957776.34 1843761.53 37.05 
957772.5 1843779.1 37.1 
957769.85 1843797.14 37.14 
957767.21 1843815.18 37.19 
957764.81 1843834.99 37.26 
957762.43 1843854.81 37.35 
957760.06 1843875.97 37.52 
957756.35 1843896.2 37.78 
957752.08 1843916.29 38.72 
957744.96 1843934.37 40.74 
957734.57 1843950.22 39.95 
957721.82 1843963.38 38.24 
957709.06 1843976.54 38.28 
957696.51 1843988.25 38.58 
957683.81 1844000.79 38.74 
957671.11 1844013.34 39.02 
957661.54 1844028.22 39.24 
957655.86 1844045.06 39.26 
958017.68 1843603.91 35.16 
958004.55 1843609.8 35.22 
957991.91 1843615.15 35.31 
957979.18 1843620.22 35.4 
957966.47 1843625.33 35.48 
957946.5 1843633.9 35.66 
957926.64 1843642.79 35.79 
957906.82 1843651.75 35.98 
957887.54 1843661.95 36.1 
957868.28 1843672.18 36.34 
957849.01 1843682.4 36.64 
957829.65 1843692.4 36.8 
957812.4 1843703.97 37.1 
957795.14 1843715.53 37.13 
957780.61 1843727.41 37.12 
957774.25 1843743.44 37.02 
957767.88 1843759.46 37.09 
957763.53 1843776.98 37.13 
957760.94 1843795.17 37.18 
957758.34 1843813.37 37.22 
957755.85 1843832.45 37.26 
957753.39 1843851.53 37.32 
957750.95 1843872.64 37.37 
957747.88 1843893.29 37.43 
957744.39 1843913.84 37.6 
957736.41 1843931.29 37.63 
957726.82 1843947.62 37.84 
957713.78 1843959.89 38.15 
957700.74 1843972.17 38.4 
957687.95 1843983.85 38.6 
957675.33 1843997.2 39.23 
957662.72 1844010.56 40.2 
957651.68 1844025.07 42.32 
957646.5 1844042.47 40.24 
958005.77 1843596.64 35.17 
957993.61 1843602.01 35.27 
957981.45 1843607.39 35.39 
957969.29 1843612.77 35.48 
957957.13 1843618.15 35.6 
957935.98 1843627.9 35.72 
957914.83 1843637.65 35.95 
957893.67 1843647.4 36.12 
957874.65 1843657.21 36.25 
957855.63 1843667.02 36.79 
957836.61 1843676.83 37.28 
957817.58 1843686.64 37.87 
957801.39 1843698.56 38.59 
957785.19 1843710.49 39.16 
957769.0 1843722.41 39.15 
957764.19 1843739.89 37.65 
957759.38 1843757.37 37.41 
957754.57 1843774.86 37.52 
957752.02 1843793.21 37.42 
957749.47 1843811.56 37.39 
957746.92 1843829.91 37.34 
957744.36 1843848.26 37.37 
957741.84 1843869.31 37.4 
957739.32 1843890.36 37.46 
957736.81 1843911.42 37.5 
957727.98 1843928.26 37.71 
957719.16 1843945.1 37.96 
957705.87 1843956.52 38.19 
957692.58 1843967.93 38.51 
957679.29 1843979.35 38.78 
957666.78 1843993.54 42.57 
957654.28 1844007.72 44.87 
957641.77 1844021.9 46.6 
957637.12 1844039.87 45.26 
957788.98 1844459.8 56.75 
957801.55 1844457.64 49.77 
957814.11 1844455.49 45.05 
957826.67 1844453.33 44.98 
957839.23 1844451.17 47.34 
957520.03 1842439.7 35.63 
957519.49 1842446.06 33.71 
957518.95 1842452.43 31.97 
957518.41 1842458.8 31.67 
957517.87 1842465.17 30.22 
956794.85 1832904.78 0.65 
956816.64 1832954.17 0.15 
956838.44 1833003.56 0.0 
956860.23 1833052.95 -0.01 
956882.02 1833102.34 0.0 
956737.77 1832976.29 1.32 
956761.23 1833018.13 0.0 
956784.95 1833060.39 0.0 
956808.92 1833103.06 0.0 
956833.13 1833146.13 0.0 
956680.69 1833047.79 0.02 
956704.35 1833079.72 0.0 
956729.49 1833114.06 0.0 
956756.12 1833150.79 0.0 
956784.24 1833189.93 0.0 
956616.86 1833078.2 0.0 
956643.21 1833111.91 0.0 
956669.45 1833146.01 0.0 
956695.6 1833180.52 0.12 
956721.64 1833215.42 0.15 
956553.03 1833108.6 0.0 
956579.69 1833141.08 0.0 
956606.24 1833173.96 0.12 
956632.7 1833207.24 0.37 
956659.05 1833240.91 0.29 
956489.2 1833139.01 0.0 
956515.65 1833165.98 0.0 
956542.34 1833196.21 0.32 
956569.28 1833229.68 0.52 
956596.45 1833266.4 0.51 
956421.65 1833127.09 0.0 
956447.13 1833159.39 0.0 
956472.43 1833191.54 0.26 
956497.56 1833223.55 0.73 
956522.51 1833255.4 0.63 
956354.09 1833115.17 0.0 
956377.91 1833147.64 0.0 
956401.59 1833180.0 0.0 
956425.15 1833212.26 0.7 
956448.57 1833244.4 0.84 
956286.54 1833103.26 0.0 
956308.68 1833135.9 0.0 
956330.75 1833168.47 0.0 
956352.73 1833200.97 0.44 
956374.63 1833233.4 1.04 
956218.98 1833091.34 0.1 
956239.47 1833124.57 0.0 
956259.92 1833157.48 0.0 
956280.32 1833190.1 0.0 
956300.69 1833222.4 1.01 
956145.45 1833092.79 1.25 
956163.81 1833128.8 0.0 
956182.21 1833164.93 0.0 
956200.67 1833201.18 0.13 
956219.16 1833237.55 1.4 
956071.92 1833094.23 1.57 
956088.13 1833133.29 0.15 
956104.49 1833172.71 0.0 
956120.99 1833212.52 0.0 
956137.64 1833252.7 1.45 
955998.39 1833095.68 1.8 
956013.14 1833140.48 1.2 
956027.68 1833184.1 0.0 
956042.0 1833226.56 0.0 
956056.11 1833267.85 1.66 
955939.21 1833126.46 1.93 
955948.57 1833168.42 0.9 
955957.59 1833208.5 0.0 
955966.26 1833246.69 0.0 
955974.59 1833282.99 1.56 
955880.03 1833157.24 2.1 
955884.0 1833196.37 0.0 
955887.5 1833232.91 0.0 
955890.52 1833266.83 0.12 
955893.06 1833298.14 1.93 
955820.85 1833188.01 2.82 
955819.44 1833224.32 0.0 
955817.41 1833257.31 0.0 
955814.99 1833287.21 0.23 
955811.54 1833313.29 2.48 
955761.68 1833218.79 2.06 
955767.64 1833253.17 0.0 
955772.39 1833284.92 0.0 
955777.96 1833317.37 0.21 
955783.66 1833349.41 2.43 
955722.02 1833271.8 0.09 
955730.31 1833300.69 0.0 
955738.7 1833329.27 0.0 
955747.19 1833357.55 0.07 
955755.79 1833385.53 2.34 
955682.37 1833324.81 0.04 
955693.65 1833349.32 0.0 
955705.0 1833373.63 0.0 
955716.42 1833397.74 0.13 
955727.92 1833421.64 2.33 
955642.71 1833377.82 0.02 
955656.99 1833397.96 0.0 
955671.31 1833418.0 0.0 
955685.66 1833437.93 0.14 
955700.04 1833457.76 2.37 
955603.06 1833430.83 0.19 
955620.34 1833446.59 0.0 
955637.61 1833462.36 0.0 
955654.89 1833478.12 0.0 
955672.17 1833493.88 1.96 
956775.6 1841849.97 29.53 
956762.09 1841850.65 28.54 
956748.58 1841851.33 25.28 
956735.06 1841852.02 28.3 
956721.55 1841852.7 29.31 
956989.58 1840580.72 24.03 
957002.78 1840579.88 23.57 
957015.99 1840579.04 23.37 
957029.19 1840578.2 21.62 
957042.4 1840577.36 19.41 
956996.27 1840600.21 23.82 
957010.46 1840601.55 23.48 
957024.69 1840602.87 22.78 
957038.96 1840604.17 20.39 
957053.28 1840605.43 20.27 
957002.95 1840619.7 23.75 
957018.13 1840623.22 23.53 
957033.39 1840626.7 22.36 
957048.73 1840630.13 19.21 
957064.16 1840633.51 23.28 
957009.64 1840639.18 23.68 
957025.8 1840644.89 23.36 
957042.09 1840650.53 21.11 
957058.5 1840656.09 20.16 
957075.03 1840661.58 23.7 
957016.33 1840658.67 23.68 
957033.14 1840665.63 23.03 
957048.82 1840672.79 20.19 
957063.37 1840680.14 21.18 
957076.79 1840687.69 23.81 
957023.01 1840678.15 23.75 
957038.87 1840686.72 22.82 
957053.41 1840695.52 19.99 
957065.4 1840704.65 21.02 
957078.54 1840713.8 23.9 
957029.7 1840697.64 23.82 
957040.27 1840708.16 23.1 
957052.23 1840718.71 20.94 
957065.57 1840729.3 22.55 
957080.3 1840739.91 24.1 
957024.36 1840728.24 23.97 
957036.8 1840738.69 21.73 
957049.2 1840749.01 21.72 
957060.46 1840759.04 24.07 
957070.96 1840768.83 24.19 
957019.03 1840758.84 23.27 
957030.81 1840768.92 20.84 
957041.84 1840778.76 24.12 
957051.76 1840788.22 24.2 
957061.63 1840797.76 24.5 
957013.69 1840789.44 20.72 
957020.68 1840797.4 20.68 
957029.44 1840806.27 23.54 
957039.98 1840816.03 24.32 
957052.29 1840826.68 24.79 
956993.82 1840814.68 21.83 
957003.69 1840823.36 20.82 
957014.17 1840832.36 23.66 
957024.76 1840841.43 24.46 
957035.62 1840850.65 24.78 
956973.95 1840839.92 23.17 
956984.81 1840848.38 21.52 
956995.94 1840856.98 24.42 
957007.32 1840865.73 24.52 
957018.96 1840874.62 24.82 
956954.08 1840865.17 23.67 
956965.77 1840873.32 21.05 
956977.71 1840881.61 23.09 
956989.88 1840890.03 24.59 
957002.3 1840898.59 24.82 
956934.22 1840890.41 24.49 
956947.01 1840898.46 22.03 
956959.84 1840906.5 22.21 
956972.72 1840914.53 24.69 
956985.64 1840922.55 24.97 
956915.64 1840916.74 24.66 
956929.13 1840923.73 22.82 
956942.45 1840930.56 22.39 
956955.6 1840937.22 24.23 
956968.57 1840943.71 24.89 
956897.07 1840943.06 24.55 
956910.9 1840948.72 23.53 
956924.58 1840954.25 22.48 
956938.12 1840959.63 23.39 
956951.51 1840964.87 24.93 
956878.5 1840969.39 25.01 
956892.66 1840973.72 24.78 
956906.71 1840977.93 21.69 
956920.64 1840982.04 22.33 
956934.45 1840986.03 24.83 
956859.93 1840995.72 25.3 
956874.43 1840998.71 24.55 
956888.84 1841001.62 22.88 
956903.16 1841004.45 23.07 
956917.39 1841007.19 24.38 
956841.36 1841022.05 25.57 
956856.19 1841023.71 24.84 
956870.97 1841025.31 24.02 
956885.68 1841026.86 22.45 
956900.33 1841028.34 23.11 
956822.79 1841048.38 25.65 
956839.8 1841050.06 25.34 
956856.53 1841051.67 24.71 
956872.99 1841053.21 21.56 
956889.18 1841054.67 25.26 
956821.01 1841074.65 25.53 
956835.83 1841076.39 24.82 
956850.26 1841078.02 23.29 
956864.33 1841079.56 23.32 
956878.02 1841081.0 24.28 
956819.23 1841100.92 25.12 
956831.85 1841102.71 24.38 
956844.0 1841104.38 23.0 
956855.66 1841105.92 22.2 
956866.86 1841107.33 24.37 
956817.46 1841127.2 25.19 
956828.62 1841128.21 22.84 
956839.75 1841129.21 22.92 
956850.84 1841130.19 25.46 
956861.91 1841131.15 25.1 
956813.16 1841151.12 23.79 
956824.16 1841152.1 23.44 
956835.13 1841153.08 23.54 
956846.06 1841154.03 24.39 
956856.96 1841154.97 25.69 
956808.87 1841175.03 22.82 
956819.7 1841176.0 22.54 
956830.51 1841176.95 25.77 
956841.27 1841177.88 25.8 
956852.01 1841178.79 25.92 
956804.58 1841198.95 23.86 
956815.25 1841199.89 24.83 
956825.88 1841200.82 24.86 
956836.49 1841201.72 25.88 
956847.06 1841202.61 25.91 
956800.28 1841222.87 23.94 
956808.36 1841223.51 25.18 
956817.14 1841224.63 25.96 
956826.63 1841226.25 25.98 
956836.82 1841228.35 26.13 
956782.68 1841237.91 23.92 
956792.25 1841240.98 25.33 
956802.75 1841244.7 25.36 
956814.2 1841249.07 26.07 
956826.58 1841254.09 26.1 
956765.08 1841252.95 23.85 
956776.14 1841258.45 22.92 
956788.36 1841264.76 25.21 
956801.77 1841271.89 26.15 
956816.34 1841279.82 26.32 
956747.48 1841267.99 25.2 
956760.62 1841276.47 23.98 
956773.67 1841284.83 25.91 
956786.61 1841293.08 25.44 
956799.46 1841301.23 26.33 
956728.57 1841294.09 26.06 
956742.19 1841301.36 24.13 
956755.74 1841308.54 24.02 
956769.2 1841315.64 26.08 
956782.58 1841322.64 26.36 
956709.66 1841320.19 26.69 
956723.76 1841326.26 25.24 
956737.81 1841332.26 22.77 
956751.78 1841338.19 26.39 
956765.7 1841344.05 26.46 
956690.75 1841346.28 29.87 
956705.61 1841351.18 26.76 
956720.51 1841356.09 24.26 
956735.43 1841361.0 25.97 
956750.39 1841365.92 26.55 
956671.83 1841372.38 29.83 
956688.47 1841376.51 27.58 
956704.56 1841380.46 24.43 
956720.09 1841384.21 24.7 
956735.08 1841387.78 26.63 
956671.37 1841394.24 28.95 
956684.81 1841398.55 27.27 
956697.36 1841402.56 26.74 
956709.01 1841406.26 25.05 
956719.77 1841409.65 23.51 
956670.9 1841416.11 28.28 
956683.15 1841420.8 27.46 
956695.5 1841425.48 27.17 
956707.96 1841430.15 24.94 
956720.53 1841434.8 24.85 
956670.43 1841437.97 28.28 
956683.27 1841443.49 27.42 
956696.03 1841448.99 26.92 
956708.7 1841454.47 25.93 
956721.29 1841459.94 23.37 
956672.47 1841469.51 28.04 
956684.96 1841473.42 27.5 
956697.38 1841477.32 27.29 
956709.74 1841481.21 25.71 
956722.05 1841485.09 24.76 
956674.52 1841501.05 27.41 
956686.64 1841503.36 27.48 
956698.73 1841505.66 27.23 
956710.79 1841507.95 25.63 
956722.81 1841510.24 24.06 
956676.57 1841532.6 27.85 
956688.4 1841533.71 27.51 
956700.22 1841534.82 27.33 
956712.03 1841535.93 26.83 
956723.83 1841537.03 24.6 
956678.61 1841564.14 27.79 
956690.16 1841564.06 27.59 
956701.72 1841563.98 27.5 
956713.29 1841563.91 25.88 
956724.85 1841563.83 25.12 
956680.66 1841595.68 27.74 
956691.93 1841594.41 27.6 
956703.23 1841593.14 27.5 
956714.54 1841591.88 26.87 
956725.88 1841590.63 24.8 
956685.41 1841622.5 27.74 
956695.81 1841621.22 27.67 
956706.19 1841619.94 27.62 
956716.55 1841618.68 26.75 
956726.9 1841617.42 25.68 
956690.16 1841649.32 27.82 
956700.76 1841648.32 27.76 
956711.35 1841647.32 27.69 
956721.92 1841646.32 26.04 
956732.48 1841645.34 25.01 
956694.91 1841676.14 27.19 
956705.71 1841675.41 27.46 
956716.5 1841674.69 27.81 
956727.29 1841673.97 26.32 
956738.06 1841673.25 24.35 
956699.67 1841702.97 28.02 
956710.67 1841702.51 27.96 
956721.66 1841702.06 26.73 
956732.65 1841701.61 26.0 
956743.64 1841701.17 26.01 
956704.04 1841732.91 28.14 
956715.37 1841731.94 28.05 
956726.67 1841730.98 26.77 
956737.96 1841730.03 25.27 
956749.22 1841729.08 26.98 
956708.42 1841762.86 28.28 
956720.08 1841761.37 28.16 
956731.7 1841759.9 27.16 
956743.27 1841758.44 25.03 
956754.79 1841757.0 28.16 
956712.79 1841792.81 28.76 
956725.08 1841791.59 27.98 
956737.33 1841790.38 26.48 
956749.54 1841789.18 26.38 
956761.73 1841787.99 28.86 
956717.17 1841822.76 29.62 
956730.07 1841821.8 28.09 
956742.95 1841820.86 26.24 
956755.82 1841819.91 27.09 
956768.67 1841818.98 29.06 
956757.04 1840055.58 21.48 
956763.71 1840054.19 20.9 
956770.39 1840052.8 20.46 
956777.07 1840051.42 19.23 
956783.75 1840050.03 18.0 
955612.54 1833499.04 0.87 
955631.27 1833514.14 0.0 
955650.02 1833529.25 0.0 
955668.76 1833544.36 0.3 
955687.51 1833559.46 2.42 
955622.02 1833567.24 2.41 
955642.21 1833581.7 0.67 
955662.41 1833596.15 0.0 
955682.63 1833610.6 0.48 
955702.85 1833625.04 2.32 
955627.68 1833615.16 2.5 
955649.88 1833634.22 1.43 
955672.37 1833653.14 0.0 
955695.14 1833671.95 0.59 
955718.19 1833690.62 2.5 
955633.34 1833663.08 2.5 
955656.2 1833689.01 2.1 
955678.64 1833714.8 0.35 
955700.68 1833740.44 0.89 
955722.3 1833765.95 2.39 
955639.0 1833711.0 2.5 
955660.88 1833743.99 2.31 
955682.73 1833776.7 0.16 
955704.58 1833809.12 1.66 
955726.4 1833841.27 2.54 
955642.75 1833779.5 2.01 
955664.72 1833814.24 0.46 
955686.66 1833848.67 0.0 
955708.59 1833882.79 1.46 
955730.5 1833916.6 2.51 
955646.5 1833848.0 2.5 
955668.56 1833884.49 1.08 
955690.59 1833920.65 0.39 
955712.61 1833956.45 2.49 
955734.6 1833991.92 2.51 
955650.25 1833916.5 2.42 
955672.4 1833954.85 0.03 
955692.7 1833992.77 0.57 
955710.58 1834030.28 1.61 
955726.83 1834067.35 2.5 
955654.0 1833985.0 1.26 
955672.05 1834025.17 0.0 
955688.91 1834064.85 0.74 
955704.58 1834104.06 2.24 
955719.06 1834142.78 2.2 
955652.81 1834049.6 1.36 
955669.42 1834092.56 0.03 
955684.7 1834134.98 0.0 
955698.66 1834176.86 1.05 
955711.29 1834218.21 2.5 
955651.61 1834114.2 1.29 
955666.93 1834156.26 0.35 
955680.93 1834197.79 0.27 
955691.34 1834238.53 1.13 
955702.64 1834278.96 2.35 
955650.42 1834178.8 0.91 
955659.97 1834219.48 0.01 
955670.41 1834259.86 0.18 
955681.75 1834299.94 1.44 
955693.99 1834339.72 2.5 
955637.56 1834244.1 0.24 
955648.2 1834283.63 0.05 
955659.71 1834322.87 0.21 
955672.09 1834361.82 2.23 
955685.34 1834400.48 2.5 
955624.71 1834309.4 0.0 
955636.43 1834347.78 0.0 
955649.0 1834385.88 0.36 
955662.42 1834423.7 2.07 
955676.69 1834461.23 3.03 
955611.85 1834374.7 0.0 
955624.4 1834413.36 0.0 
955636.71 1834451.39 0.22 
955642.3 1834486.77 1.75 
955646.44 1834521.08 2.38 
955599.0 1834440.0 0.16 
955604.85 1834476.66 0.0 
955609.66 1834512.36 0.02 
955613.44 1834547.12 0.0 
955616.19 1834580.93 1.14 
955571.29 1834509.0 0.78 
955576.43 1834543.31 0.22 
955580.59 1834576.71 0.06 
955583.76 1834609.2 0.18 
955585.94 1834640.79 0.12 
955543.57 1834578.0 0.58 
955548.02 1834609.96 0.53 
955551.52 1834641.05 0.72 
955554.08 1834671.28 0.03 
955555.69 1834700.64 0.56 
955515.86 1834647.0 2.24 
955521.8 1834671.46 2.49 
955526.86 1834695.15 0.41 
955529.32 1834717.06 0.0 
955529.75 1834737.52 0.44 
955488.14 1834716.0 2.61 
955491.45 1834730.53 2.32 
955495.16 1834745.11 0.54 
955499.28 1834759.73 0.21 
955503.81 1834774.4 0.19 
955449.83 1834765.23 2.72 
955456.39 1834776.69 2.72 
955463.26 1834788.19 0.93 
955470.42 1834799.72 0.33 
955477.87 1834811.28 0.46 
955411.51 1834814.45 2.82 
955421.84 1834823.19 2.55 
955432.03 1834831.73 1.51 
955442.06 1834840.05 0.0 
955451.94 1834848.16 0.05 
955383.01 1834861.97 2.91 
955393.91 1834867.95 2.48 
955404.7 1834873.79 1.55 
955415.4 1834879.48 0.38 
955426.0 1834885.04 0.38 
955354.5 1834909.48 2.99 
955365.97 1834912.7 2.94 
955377.38 1834915.84 1.86 
955388.75 1834918.92 0.01 
955400.06 1834921.92 0.0 
955326.0 1834957.0 3.09 
955338.03 1834957.45 2.76 
955350.06 1834957.9 1.64 
955362.09 1834958.35 0.39 
955374.12 1834958.8 0.27 
955784.0 1835732.0 3.1 
955793.41 1835721.62 0.49 
955802.81 1835711.24 0.38 
955812.22 1835700.86 5.47 
955821.62 1835690.48 5.48 
955808.22 1835774.14 4.5 
955818.12 1835764.76 0.24 
955828.02 1835755.39 0.47 
955837.93 1835746.03 3.65 
955847.85 1835736.69 5.6 
955832.44 1835816.27 4.9 
955842.83 1835807.89 2.43 
955853.24 1835799.54 0.23 
955863.65 1835791.2 0.71 
955874.07 1835782.89 4.84 
955856.66 1835858.41 5.67 
955867.55 1835851.03 5.0 
955878.45 1835843.68 0.81 
955889.37 1835836.37 0.47 
955900.3 1835829.1 0.73 
955880.88 1835900.54 5.75 
955892.26 1835894.17 5.75 
955903.66 1835887.83 2.26 
955915.08 1835881.54 0.94 
955926.52 1835875.3 5.31 
955905.1 1835942.68 5.86 
955916.98 1835937.3 5.47 
955928.88 1835931.98 3.6 
955940.8 1835926.72 0.0 
955952.75 1835921.51 0.0 
955929.32 1835984.82 4.86 
955941.69 1835980.44 5.43 
955954.09 1835976.13 2.82 
955966.52 1835971.89 0.0 
955978.98 1835967.72 3.35 
955953.54 1836026.95 6.08 
955966.4 1836023.57 4.85 
955979.3 1836020.28 1.4 
955992.23 1836017.06 0.61 
956005.2 1836013.92 1.56 
955977.76 1836069.09 6.19 
955991.12 1836066.71 4.41 
956004.51 1836064.42 0.2 
956017.95 1836062.23 0.68 
956031.43 1836060.13 3.14 
956001.98 1836111.23 6.31 
956015.83 1836109.85 3.89 
956029.73 1836108.57 0.38 
956043.67 1836107.4 0.0 
956057.65 1836106.33 2.3 
956026.2 1836153.36 6.43 
956040.54 1836152.98 5.63 
956054.94 1836152.72 1.95 
956069.38 1836152.57 2.05 
956083.88 1836152.54 0.63 
956050.42 1836195.5 5.29 
956068.1 1836193.46 5.24 
956085.88 1836191.51 3.9 
956103.76 1836189.65 1.38 
956121.74 1836187.87 0.08 
956088.25 1836230.95 5.3 
956105.96 1836228.9 6.09 
956123.76 1836226.92 3.56 
956141.64 1836225.02 0.25 
956159.61 1836223.19 0.77 
956126.09 1836266.4 6.57 
956143.82 1836264.33 6.54 
956161.63 1836262.33 2.5 
956179.51 1836260.39 0.09 
956197.48 1836258.52 4.32 
956163.92 1836301.85 6.61 
956181.68 1836299.76 6.36 
956199.5 1836297.73 1.24 
956217.39 1836295.76 0.4 
956235.34 1836293.85 5.98 
956201.75 1836337.3 6.64 
956219.53 1836335.19 5.28 
956237.37 1836333.14 1.29 
956255.26 1836331.13 0.76 
956273.21 1836329.17 3.72 
956239.58 1836372.74 6.19 
956257.39 1836370.63 4.28 
956275.24 1836368.55 1.67 
956293.14 1836366.51 3.29 
956311.08 1836364.5 2.0 
956277.42 1836408.19 5.44 
956295.25 1836406.06 4.35 
956313.11 1836403.95 2.51 
956331.01 1836401.88 3.32 
956348.94 1836399.83 0.83 
956315.25 1836443.64 5.2 
956333.11 1836441.49 5.4 
956350.99 1836439.36 3.72 
956368.89 1836437.25 0.94 
956386.81 1836435.16 1.66 
956353.08 1836479.09 5.39 
956370.97 1836476.92 6.27 
956388.86 1836474.77 1.84 
956406.76 1836472.62 0.45 
956424.68 1836470.48 3.23 
956390.92 1836514.54 4.68 
956408.82 1836512.36 5.61 
956426.73 1836510.17 0.32 
956444.64 1836507.99 3.8 
956462.54 1836505.81 6.72 
956395.01 1836566.11 6.92 
956412.06 1836566.13 3.71 
956429.03 1836566.14 0.0 
956445.91 1836566.15 2.87 
956462.7 1836566.15 6.67 
956399.1 1836617.68 7.04 
956415.3 1836619.89 1.21 
956431.33 1836622.1 0.0 
956447.18 1836624.3 1.44 
956462.86 1836626.5 5.81 
956403.2 1836669.26 7.15 
956418.54 1836673.66 3.36 
956433.62 1836678.06 0.0 
956448.45 1836682.45 0.0 
956463.02 1836686.84 5.11 
956407.29 1836720.83 7.29 
956419.98 1836727.33 5.04 
956433.52 1836733.89 0.01 
956447.92 1836740.51 0.21 
956463.18 1836747.18 5.18 
956395.22 1836783.37 6.9 
956409.91 1836788.64 3.18 
956424.79 1836793.92 0.7 
956439.86 1836799.22 2.21 
956455.13 1836804.52 7.26 
956383.15 1836845.92 6.81 
956398.89 1836849.89 1.53 
956414.79 1836853.87 1.53 
956430.85 1836857.86 5.72 
956447.07 1836861.87 7.55 
956371.07 1836908.46 5.74 
956387.87 1836911.13 1.83 
956404.8 1836913.82 3.46 
956421.85 1836916.51 7.53 
956439.02 1836919.21 7.67 
956359.0 1836971.0 3.44 
956377.47 1836972.42 2.68 
956395.62 1836973.82 4.34 
956413.45 1836975.2 7.79 
956430.96 1836976.55 6.12 
956361.91 1837033.34 4.66 
956379.66 1837036.34 2.45 
956397.34 1837039.32 4.39 
956414.96 1837042.3 8.3 
956432.52 1837045.26 8.3 
956364.82 1837095.68 4.66 
956382.26 1837100.28 2.48 
956399.61 1837104.86 5.82 
956416.88 1837109.42 8.66 
956434.07 1837113.98 8.79 
956367.74 1837158.02 4.21 
956384.86 1837164.22 3.01 
956401.89 1837170.39 3.05 
956418.81 1837176.55 6.93 
956435.62 1837182.69 9.29 
956370.65 1837220.36 5.66 
956387.28 1837228.16 2.92 
956403.92 1837235.94 4.97 
956420.55 1837243.68 8.97 
956437.18 1837251.4 9.73 
956371.99 1837279.52 4.46 
956388.67 1837289.72 2.6 
956405.36 1837299.88 4.76 
956422.05 1837310.02 7.25 
956438.73 1837320.11 10.26 
956373.32 1837338.68 6.0 
956390.07 1837351.28 2.64 
956406.81 1837363.83 3.13 
956423.55 1837376.35 8.16 
956440.29 1837388.83 9.93 
956374.66 1837397.84 7.13 
956391.46 1837412.83 3.23 
956408.25 1837427.78 4.41 
956425.05 1837442.69 7.39 
956441.84 1837457.54 11.03 
956376.0 1837457.0 9.33 
956395.17 1837469.27 2.73 
956414.36 1837481.5 2.99 
956433.59 1837493.68 7.27 
956452.84 1837505.81 11.07 
956390.12 1837520.46 9.08 
956408.52 1837528.92 3.4 
956426.94 1837537.34 3.26 
956445.38 1837545.73 6.68 
956463.84 1837554.08 10.9 
956404.23 1837583.92 8.77 
956421.86 1837588.56 3.17 
956439.51 1837593.18 3.29 
956457.17 1837597.78 6.36 
956474.84 1837602.35 11.2 
956418.35 1837647.37 8.69 
956435.21 1837648.2 3.58 
956452.08 1837649.02 3.53 
956468.96 1837649.83 5.6 
956485.84 1837650.62 11.2 
956432.47 1837710.83 11.85 
956448.56 1837707.84 10.56 
956464.66 1837704.86 7.56 
956480.75 1837701.87 9.39 
956496.85 1837698.89 11.88 
956440.48 1837740.81 12.03 
956457.98 1837743.03 11.07 
956475.49 1837745.26 8.09 
956493.01 1837747.52 10.43 
956510.54 1837749.79 12.14 
956448.49 1837770.79 11.05 
956467.4 1837778.21 10.17 
956486.32 1837785.67 8.18 
956505.26 1837793.16 10.58 
956524.23 1837800.69 12.27 
956456.5 1837800.76 12.2 
956476.82 1837813.39 10.85 
956497.15 1837826.07 8.27 
956517.52 1837838.8 10.16 
956537.92 1837851.59 12.39 
956464.51 1837830.74 11.18 
956486.23 1837848.57 12.03 
956507.99 1837866.48 8.36 
956529.78 1837884.45 9.34 
956551.6 1837902.49 12.49 
956472.53 1837860.72 12.34 
956495.65 1837883.76 11.27 
956518.82 1837906.88 9.13 
956542.03 1837930.09 10.02 
956565.29 1837953.39 11.09 
956485.88 1837910.68 12.48 
956509.09 1837933.95 12.46 
956532.34 1837957.31 11.64 
956555.64 1837980.76 9.3 
956578.98 1838004.29 10.39 
956499.23 1837960.64 12.66 
956522.52 1837984.14 12.79 
956545.86 1838007.74 12.39 
956569.24 1838031.42 10.62 
956592.67 1838055.19 9.41 
956512.58 1838010.6 12.94 
956535.96 1838034.34 13.1 
956559.38 1838058.17 13.23 
956582.85 1838082.08 11.76 
956606.36 1838106.09 9.21 
956525.94 1838060.56 13.23 
956549.39 1838084.54 13.39 
956572.9 1838108.6 13.58 
956596.45 1838132.75 12.66 
956620.05 1838156.99 9.66 
956539.29 1838110.53 13.61 
956562.83 1838134.73 13.74 
956586.42 1838159.03 13.87 
956610.06 1838183.41 12.7 
956633.74 1838207.89 13.34 
956552.64 1838160.49 13.76 
956576.27 1838184.93 13.8 
956599.94 1838209.46 14.09 
956623.66 1838234.08 9.95 
956647.43 1838258.79 12.66 
956565.99 1838210.45 13.86 
956589.7 1838235.12 14.27 
956613.46 1838259.89 12.25 
956637.27 1838284.74 11.36 
956661.12 1838309.69 14.59 
956579.34 1838260.41 14.39 
956603.27 1838285.81 13.49 
956625.65 1838311.2 10.47 
956634.85 1838336.29 12.34 
956644.39 1838361.83 14.83 
956592.7 1838310.37 14.48 
956599.9 1838335.54 13.68 
956608.13 1838361.2 10.77 
956616.59 1838386.9 12.03 
956627.65 1838413.97 14.51 
956578.89 1838344.15 14.78 
956586.16 1838371.12 14.87 
956591.74 1838397.03 13.42 
956598.26 1838423.53 10.2 
956602.37 1838449.0 14.38 
956565.08 1838377.93 14.95 
956567.02 1838403.63 15.06 
956570.69 1838430.39 13.61 
956574.03 1838457.22 10.58 
956577.09 1838484.02 15.15 
956539.72 1838411.58 15.13 
956542.45 1838438.01 14.9 
956546.22 1838465.31 14.83 
956549.53 1838492.45 13.39 
956551.81 1838519.05 13.19 
956514.36 1838445.24 15.14 
956518.94 1838473.26 15.29 
956522.5 1838500.74 15.07 
956525.03 1838527.68 12.85 
956526.54 1838554.07 11.01 
956486.44 1838490.3 15.12 
956491.56 1838515.75 15.42 
956495.92 1838540.81 15.17 
956499.44 1838565.42 11.04 
956501.26 1838589.1 14.85 
956458.52 1838535.37 15.49 
956464.59 1838559.93 15.41 
956469.03 1838583.59 15.05 
956475.83 1838608.38 10.47 
956486.37 1838634.98 15.8 
956440.79 1838568.11 15.57 
956444.56 1838594.44 15.7 
956450.93 1838622.01 11.91 
956461.98 1838651.41 15.33 
956471.47 1838680.86 15.96 
956423.05 1838600.84 15.61 
956427.21 1838630.3 15.46 
956440.65 1838662.95 10.99 
956450.77 1838695.19 15.92 
956456.58 1838726.74 16.18 
956405.32 1838633.58 15.64 
956421.39 1838669.29 15.57 
956432.84 1838704.27 12.36 
956442.67 1838738.9 15.81 
956458.41 1838774.3 16.39 
956402.38 1838683.55 16.05 
956415.38 1838718.07 14.1 
956428.73 1838752.43 11.41 
956444.36 1838787.09 14.01 
956460.23 1838821.87 16.51 
956399.44 1838733.52 16.45 
956414.75 1838767.32 15.6 
956430.28 1838801.23 12.65 
956445.94 1838835.27 12.7 
956462.05 1838869.43 11.89 
956400.73 1838784.34 16.51 
956416.11 1838814.91 16.03 
956430.99 1838845.57 15.32 
956445.59 1838876.31 13.44 
956457.45 1838907.02 12.45 
956402.02 1838835.16 16.72 
956415.15 1838862.43 16.73 
956428.56 1838889.79 16.57 
956441.34 1838917.19 15.78 
956452.84 1838944.6 14.67 
956399.19 1838869.16 16.94 
956412.32 1838897.34 16.93 
956425.88 1838925.62 16.98 
956437.94 1838953.91 16.98 
956448.24 1838982.19 16.79 
956396.36 1838903.15 17.14 
956410.99 1838929.66 17.07 
956423.97 1838956.17 17.11 
956435.34 1838982.67 17.19 
956459.91 1839006.76 15.85 
956396.26 1838944.39 17.34 
956409.77 1838967.34 17.28 
956424.97 1838989.68 17.27 
956448.29 1839010.44 17.27 
956471.58 1839031.32 14.33 
956396.15 1838985.63 17.47 
956417.99 1839003.04 17.34 
956439.78 1839020.56 17.32 
956461.53 1839038.17 16.53 
956483.25 1839055.89 12.93 
956418.86 1839032.5 17.46 
956437.92 1839044.38 17.43 
956456.95 1839056.34 17.0 
956475.94 1839068.36 14.28 
956494.92 1839080.46 12.78 
956441.58 1839079.37 17.57 
956457.69 1839085.8 17.42 
956473.9 1839092.22 15.18 
956490.2 1839098.63 12.59 
956506.59 1839105.03 16.92 
956459.24 1839118.66 17.49 
956473.92 1839121.4 14.71 
956488.66 1839124.13 12.5 
956503.43 1839126.87 15.68 
956518.26 1839129.59 16.65 
956476.9 1839157.94 13.68 
956490.15 1839157.0 13.44 
956503.41 1839156.05 14.56 
956516.67 1839155.11 17.76 
956529.93 1839154.16 17.79 
956849.46 1839826.14 20.34 
956864.33 1839831.96 17.51 
956879.21 1839837.78 17.33 
956894.08 1839843.6 19.54 
956908.96 1839849.43 20.79 
956835.63 1839844.6 20.76 
956850.22 1839849.64 20.73 
956864.82 1839854.69 19.22 
956879.42 1839859.74 16.43 
956894.02 1839864.8 19.88 
956821.81 1839863.06 20.85 
956836.12 1839867.32 20.87 
956850.43 1839871.59 20.68 
956864.75 1839875.87 17.2 
956879.08 1839880.17 18.12 
956807.61 1839884.69 20.9 
956821.68 1839887.3 20.93 
956835.79 1839889.98 20.9 
956849.94 1839892.73 18.84 
956864.13 1839895.54 16.08 
956793.41 1839906.31 20.94 
956806.19 1839909.16 20.99 
956818.95 1839911.97 21.02 
956831.7 1839914.76 20.76 
956844.44 1839917.52 17.38 
956779.21 1839927.94 20.84 
956790.93 1839931.13 21.04 
956802.43 1839934.12 21.08 
956813.7 1839936.91 21.06 
956824.74 1839939.5 19.88 
956768.54 1839954.74 20.91 
956778.13 1839956.82 21.09 
956787.41 1839958.65 21.18 
956796.38 1839960.2 21.18 
956805.05 1839961.49 21.08 
956757.87 1839981.53 21.02 
956768.2 1839982.06 21.23 
956778.62 1839982.59 21.25 
956789.13 1839983.11 20.96 
956799.72 1839983.62 20.91 
956747.21 1840008.33 21.02 
956759.0 1840007.68 21.3 
956770.8 1840007.04 21.33 
956782.6 1840006.4 21.06 
956794.4 1840005.76 20.14 
956752.12 1840031.96 21.25 
956761.36 1840030.94 21.4 
956770.6 1840029.92 20.98 
956779.84 1840028.91 20.83 
956789.07 1840027.89 18.95 
956450.59 1839435.21 18.48 
956459.11 1839429.79 18.25 
956467.62 1839424.36 16.91 
956476.14 1839418.93 14.42 
956484.65 1839413.5 15.47 
955486.06 1835683.11 4.9 
955481.0 1835667.0 4.87 
955481.0 1835636.2 4.84 
955481.0 1835605.4 4.79 
955481.0 1835574.6 4.76 
955481.0 1835543.8 4.71 
955481.0 1835513.0 4.65 
955477.33 1835483.5 4.38 
955473.67 1835454.0 4.5 
955470.0 1835424.5 3.02 
955466.33 1835395.0 3.26 
955462.67 1835365.5 1.43 
955459.0 1835336.0 0.68 
955445.75 1835307.0 2.47 
955432.5 1835278.0 3.98 
955419.25 1835249.0 4.01 
955406.0 1835220.0 4.03 
955396.0 1835187.0 4.14 
955386.0 1835154.0 3.3 
955376.0 1835121.0 3.7 
955366.0 1835088.0 3.61 
955356.0 1835055.0 3.51 
955348.5 1835030.5 3.39 
955341.0 1835006.0 3.29 
955333.5 1834981.5 3.17 
955499.3 1835678.96 4.9 
955495.4 1835659.58 4.87 
955495.24 1835629.26 4.82 
955495.08 1835598.93 4.79 
955494.92 1835568.6 4.74 
955494.76 1835538.28 4.71 
955493.6 1835508.0 3.01 
955489.68 1835478.7 3.33 
955485.75 1835449.4 0.97 
955481.83 1835420.1 0.75 
955477.9 1835390.8 1.22 
955473.98 1835361.5 0.07 
955469.62 1835332.33 0.0 
955457.06 1835303.5 0.99 
955444.17 1835274.76 0.47 
955431.28 1835246.02 1.51 
955418.51 1835217.25 2.8 
955408.66 1835185.59 3.03 
955398.88 1835153.91 3.86 
955389.11 1835122.23 2.97 
955379.33 1835090.55 2.74 
955369.56 1835058.87 3.46 
955361.68 1835033.51 3.39 
955353.8 1835008.16 3.14 
955345.91 1834982.8 2.8 
955512.55 1835674.8 4.9 
955509.78 1835652.2 4.85 
955509.46 1835622.35 4.82 
955509.14 1835592.49 4.78 
955508.82 1835562.64 3.47 
955508.51 1835532.78 0.83 
955506.17 1835503.03 0.69 
955501.99 1835473.93 1.19 
955497.8 1835444.83 0.14 
955493.62 1835415.74 0.0 
955489.44 1835386.64 0.78 
955485.25 1835357.54 0.05 
955480.49 1835328.6 1.19 
955468.4 1835300.0 1.0 
955455.87 1835271.53 0.17 
955443.34 1835243.06 0.14 
955430.96 1835214.53 0.79 
955421.32 1835184.19 1.37 
955411.78 1835153.81 0.53 
955402.23 1835123.43 1.33 
955392.68 1835093.05 1.75 
955383.14 1835062.67 1.3 
955374.88 1835036.48 0.81 
955366.61 1835010.29 0.28 
955358.33 1834984.09 0.17 
955525.79 1835670.65 4.88 
955524.11 1835644.86 4.85 
955523.64 1835615.48 3.58 
955523.17 1835586.09 0.63 
955522.7 1835556.7 0.0 
955522.23 1835527.31 0.17 
955518.71 1835498.09 0.0 
955514.27 1835469.19 1.0 
955509.83 1835440.29 0.07 
955505.38 1835411.4 1.52 
955500.94 1835382.5 2.38 
955496.49 1835353.6 1.49 
955491.62 1835324.83 3.81 
955479.77 1835296.52 2.72 
955467.6 1835268.31 0.84 
955455.42 1835240.1 0.45 
955443.36 1835211.85 1.04 
955433.98 1835182.78 0.34 
955424.67 1835153.69 0.25 
955415.36 1835124.6 0.0 
955406.05 1835095.51 0.42 
955396.75 1835066.42 0.0 
955388.09 1835039.4 0.0 
955379.42 1835012.38 0.0 
955370.76 1834985.37 0.04 
955539.04 1835666.49 3.32 
955538.42 1835637.57 0.22 
955537.79 1835608.64 0.0 
955537.17 1835579.72 0.0 
955536.55 1835550.79 0.0 
955535.92 1835521.87 0.47 
955531.22 1835493.17 2.27 
955526.52 1835464.48 2.91 
955521.81 1835435.78 1.99 
955517.11 1835407.09 4.2 
955512.41 1835378.39 3.74 
955507.7 1835349.7 4.27 
955503.0 1835321.0 3.82 
955491.18 1835293.05 3.69 
955479.35 1835265.1 2.5 
955467.53 1835237.15 3.01 
955455.7 1835209.2 2.91 
955446.64 1835181.38 1.38 
955437.57 1835153.56 1.4 
955428.51 1835125.73 1.93 
955419.45 1835097.91 1.03 
955410.38 1835070.09 0.79 
955401.32 1835042.27 0.36 
955392.25 1835014.44 0.86 
955383.19 1834986.62 0.98 
957728.02 1844599.15 90.05 
957730.1 1844583.48 90.0 
957732.18 1844567.81 90.0 
957734.25 1844552.15 87.47 
957736.33 1844536.48 86.73 
957738.41 1844520.82 90.0 
957738.5 1844602.16 90.0 
957740.47 1844586.26 90.0 
957742.44 1844570.35 90.0 
957744.41 1844554.45 88.46 
957746.38 1844538.55 81.22 
957748.35 1844522.64 89.36 
957748.98 1844605.18 90.0 
957750.85 1844589.04 90.0 
957752.71 1844572.9 89.9 
957754.57 1844556.75 86.58 
957756.44 1844540.61 80.11 
957758.3 1844524.47 79.6 
957759.46 1844608.2 87.77 
957761.22 1844591.82 89.01 
957762.98 1844575.44 83.96 
957764.74 1844559.05 80.72 
957766.49 1844542.67 79.35 
957768.25 1844526.29 72.25 
957769.94 1844611.22 82.9 
957771.59 1844594.6 83.42 
957773.24 1844577.98 79.88 
957774.9 1844561.36 77.93 
957776.55 1844544.74 71.55 
957778.2 1844528.12 69.47 
957780.42 1844614.23 79.98 
957781.97 1844597.37 77.32 
957783.51 1844580.52 75.93 
957785.06 1844563.66 70.9 
957786.6 1844546.8 64.33 
957788.15 1844529.94 59.88 
957790.9 1844617.25 76.37 
957792.34 1844600.15 72.69 
957793.78 1844583.06 70.77 
957795.22 1844565.96 67.94 
957796.66 1844548.86 60.85 
957798.09 1844531.77 59.17 
957801.38 1844620.27 71.47 
957802.71 1844602.93 70.03 
957804.05 1844585.6 67.13 
957805.38 1844568.26 61.81 
957806.71 1844550.93 59.89 
957808.04 1844533.59 54.13 
957811.86 1844623.29 69.73 
957813.09 1844605.71 67.91 
957814.31 1844588.14 62.84 
957815.54 1844570.57 60.2 
957816.76 1844552.99 58.38 
957817.99 1844535.42 50.56 
957822.34 1844626.3 65.6 
957823.46 1844608.49 63.89 
957824.58 1844590.68 60.27 
957825.7 1844572.87 59.56 
957826.82 1844555.06 52.47 
957827.94 1844537.24 49.83 
957832.82 1844629.32 61.23 
957833.83 1844611.27 60.3 
957834.85 1844593.22 59.85 
957835.86 1844575.17 54.73 
957836.87 1844557.12 48.63 
957837.89 1844539.07 46.72 
957843.3 1844632.34 58.88 
957844.21 1844614.05 56.92 
957845.11 1844595.76 55.49 
957846.02 1844577.47 50.39 
957846.93 1844559.18 45.73 
957847.83 1844540.89 45.03 
957853.78 1844635.36 49.51 
957854.58 1844616.83 48.84 
957855.38 1844598.3 48.31 
957856.18 1844579.77 45.64 
957856.98 1844561.25 45.02 
957857.78 1844542.72 45.0 
957864.26 1844638.37 45.28 
957864.95 1844619.61 45.19 
957865.65 1844600.84 45.1 
957866.34 1844582.08 45.0 
957867.04 1844563.31 45.0 
957867.73 1844544.54 45.4 
957874.74 1844641.39 45.3 
957875.33 1844622.39 45.19 
957875.91 1844603.38 45.09 
957876.5 1844584.38 45.0 
957877.09 1844565.37 45.06 
957877.68 1844546.37 50.04 
957885.22 1844644.41 46.22 
957885.7 1844625.17 45.96 
957886.18 1844605.92 45.73 
957886.66 1844586.68 45.09 
957887.14 1844567.44 47.91 
957887.63 1844548.19 56.28 
957895.7 1844647.43 49.77 
957896.07 1844627.94 49.09 
957896.45 1844608.46 50.81 
957896.82 1844588.98 53.08 
957897.2 1844569.5 53.81 
957897.57 1844550.02 60.96 
957906.18 1844650.44 55.51 
957906.45 1844630.72 54.56 
957906.71 1844611.0 59.15 
957906.98 1844591.28 60.03 
957907.25 1844571.56 65.46 
957907.52 1844551.85 66.62 
957916.66 1844653.46 60.17 
957916.82 1844633.5 59.32 
957916.98 1844613.54 60.82 
957917.14 1844593.59 67.37 
957917.31 1844573.63 69.85 
957917.47 1844553.67 70.06 
957927.14 1844656.48 62.18 
957927.19 1844636.28 65.15 
957927.25 1844616.08 63.75 
957927.3 1844595.89 69.84 
957927.36 1844575.69 73.88 
957927.42 1844555.5 76.64 
957937.62 1844659.5 69.86 
957937.57 1844639.06 69.6 
957937.52 1844618.63 70.69 
957937.47 1844598.19 75.95 
957937.42 1844577.76 79.19 
957937.36 1844557.32 80.04 
957948.1 1844662.51 75.64 
957947.94 1844641.84 75.2 
957947.78 1844621.17 77.48 
957947.63 1844600.49 79.88 
957947.47 1844579.82 80.09 
957947.31 1844559.15 82.11 
957958.58 1844665.53 83.91 
957958.31 1844644.62 84.38 
957958.05 1844623.71 84.27 
957957.79 1844602.79 83.01 
957957.52 1844581.88 82.74 
957957.26 1844560.97 88.36 
957969.06 1844668.55 94.71 
957968.69 1844647.4 93.89 
957968.32 1844626.25 94.02 
957967.95 1844605.1 91.27 
957967.58 1844583.95 89.86 
957967.21 1844562.8 89.93 
957979.53 1844671.57 99.85 
957979.06 1844650.18 98.87 
957978.58 1844628.79 99.65 
957978.11 1844607.4 96.83 
957977.63 1844586.01 98.42 
957977.16 1844564.62 90.68 
957990.01 1844674.58 100.0 
957989.43 1844652.96 99.99 
957988.85 1844631.33 99.99 
957988.27 1844609.7 99.98 
957987.69 1844588.07 99.42 
957987.1 1844566.45 94.54 
957738.07 1844492.5 90.0 
957740.92 1844457.14 90.0 
957940.52 1844463.13 90.0 
957985.24 1844542.32 90.21 
957738.18 1844501.91 90.0 
957738.29 1844511.34 90.0 
957740.21 1844465.98 87.77 
957739.49 1844474.82 90.0 
957738.78 1844483.66 87.97 
957750.53 1844457.67 82.26 
957760.14 1844458.21 73.48 
957769.76 1844458.74 68.5 
957779.37 1844459.27 61.03 
957851.23 1844452.58 55.01 
957862.65 1844453.93 60.17 
957873.25 1844455.18 69.45 
957883.17 1844456.36 72.09 
957892.78 1844457.49 76.49 
957902.33 1844458.62 82.63 
957911.88 1844459.75 85.88 
957921.42 1844460.87 88.54 
957930.97 1844462.0 90.0 
957980.27 1844533.52 90.37 
957975.3 1844524.72 90.84 
957970.33 1844515.92 90.58 
957965.37 1844507.12 90.54 
957960.4 1844498.33 90.0 
957955.43 1844489.53 90.0 
957950.46 1844480.73 90.0 
957945.49 1844471.93 90.0 
957986.17 1844554.35 90.18 
957784.01 1844467.98 58.93 
957778.54 1844476.61 62.59 
957773.57 1844485.26 63.95 
957769.07 1844495.42 67.92 
957760.4 1844504.76 73.59 
957753.05 1844513.72 79.73 
957854.4 1844533.13 45.0 
957860.77 1844525.3 45.17 
957866.88 1844517.21 50.61 
957873.02 1844508.68 59.94 
957879.6 1844499.95 67.16 
957886.58 1844491.56 68.77 
957893.45 1844483.66 76.51 
957899.88 1844475.87 79.47 
957905.96 1844467.89 81.49 
957868.64 1844498.41 57.98 
957864.4 1844487.03 59.56 
957860.16 1844475.17 58.07 
957855.6 1844463.81 56.11 
957844.1 1844462.59 49.22 
957837.22 1844472.24 45.47 
957830.23 1844481.14 45.0 
957823.1 1844489.63 45.13 
957816.02 1844497.9 49.21 
957809.02 1844505.99 50.39 
957802.06 1844513.96 54.7 
957795.09 1844521.91 58.91 
957848.42 1844473.66 51.09 
957841.02 1844482.98 45.4 
957833.55 1844491.63 45.0 
957826.21 1844499.84 45.57 
957819.06 1844507.87 49.93 
957812.04 1844515.84 50.56 
957805.06 1844523.79 53.82 
957822.01 1844517.77 49.82 
957831.9 1844519.78 47.0 
957841.62 1844521.82 45.01 
957851.17 1844523.69 45.0 
957856.14 1844497.93 47.74 
957844.32 1844494.1 45.17 
957862.69 1844507.76 51.53 
957854.16 1844508.22 46.06 
957846.37 1844504.82 45.0 
957836.41 1844502.07 45.0 
957838.94 1844512.14 45.02 
957848.26 1844514.47 45.0 
957857.32 1844516.11 49.55 
957829.09 1844509.91 46.42 
957852.41 1844485.14 50.77 
957815.01 1844525.66 50.88 
957824.95 1844527.56 49.83 
957834.82 1844529.47 47.28 
957844.62 1844531.35 45.03 
957788.64 1844476.56 56.64 
957792.61 1844485.41 55.76 
957795.96 1844494.61 54.94 
957799.04 1844504.18 54.82 
957805.91 1844496.17 50.62 
957826.68 1844470.98 45.0 
957816.55 1844468.87 45.04 
957805.88 1844467.41 48.27 
957794.67 1844467.72 53.31 
957798.98 1844476.9 50.6 
957802.62 1844486.47 50.03 
957809.44 1844477.82 48.17 
957812.82 1844487.9 49.26 
957819.8 1844479.39 45.14 
957823.38 1844462.15 45.0 
957832.88 1844462.07 45.07 
957785.1 1844519.96 59.82 
957792.09 1844512.03 58.53 
957774.97 1844517.88 69.26 
957782.09 1844509.9 60.31 
957789.18 1844502.3 58.47 
957764.45 1844515.73 71.69 
957771.74 1844507.27 67.89 
957779.47 1844499.95 62.9 
957786.42 1844493.13 58.59 
957778.31 1844491.71 62.43 
957783.02 1844484.78 60.0 
957875.99 1844489.11 64.94 
957883.66 1844481.24 72.62 
957890.5 1844474.2 77.09 
957896.44 1844466.57 79.06 
957882.41 1844472.48 72.52 
957877.69 1844465.13 71.19 
957873.05 1844476.44 69.81 
957867.07 1844464.95 63.37 
957887.16 1844465.37 74.63 
957909.61 1844477.39 82.56 
957913.33 1844487.12 81.82 
957917.09 1844497.06 83.17 
957920.73 1844507.15 82.48 
957924.17 1844517.28 81.34 
957927.52 1844527.32 80.65 
957930.87 1844537.31 80.02 
957934.17 1844547.29 79.94 
957915.64 1844469.17 86.77 
957919.55 1844478.78 87.38 
957923.57 1844488.61 87.12 
957927.59 1844498.73 87.8 
957931.11 1844509.04 87.48 
957934.27 1844519.22 86.73 
957937.59 1844529.17 85.87 
957940.97 1844539.08 85.17 
957944.25 1844549.07 83.03 
957964.91 1844552.55 90.19 
957961.9 1844542.32 90.0 
957958.08 1844532.39 90.0 
957954.17 1844522.82 90.0 
957950.44 1844513.51 89.24 
957947.27 1844504.7 90.0 
957945.75 1844498.62 90.0 
957945.2 1844491.19 90.0 
957940.06 1844480.87 90.0 
957935.36 1844471.38 90.0 
957954.48 1844550.8 88.84 
957951.23 1844540.76 88.95 
957947.71 1844530.9 89.75 
957944.2 1844521.16 88.96 
957925.44 1844470.37 89.85 
957941.03 1844511.36 90.0 
957929.69 1844480.0 89.36 
957938.87 1844500.52 89.34 
957934.16 1844489.99 90.0 
957968.96 1844533.49 90.37 
957951.65 1844498.08 90.0 
957955.87 1844506.11 90.0 
957960.11 1844514.92 90.0 
957964.49 1844524.04 90.34 
957974.86 1844554.5 90.69 
957973.73 1844543.93 90.71 
957980.0 1844548.78 90.43 
957917.42 1844525.48 79.69 
957907.3 1844523.67 75.16 
957897.17 1844521.9 67.85 
957887.04 1844520.18 64.48 
957876.91 1844518.58 57.68 
957890.62 1844530.12 61.48 
957894.13 1844540.06 60.11 
957914.14 1844543.67 70.78 
957910.75 1844533.67 72.63 
957900.68 1844531.88 69.89 
957904.13 1844541.86 67.97 
957924.14 1844545.49 77.75 
957920.81 1844535.49 78.92 
957870.59 1844526.82 50.2 
957874.16 1844536.55 50.69 
957884.13 1844538.29 56.48 
957880.58 1844528.42 58.43 
957864.24 1844534.84 45.85 
957910.45 1844505.38 79.74 
957900.25 1844503.61 75.47 
957890.02 1844501.79 72.37 
957883.37 1844510.18 63.33 
957893.61 1844511.88 69.26 
957903.79 1844513.65 75.26 
957913.98 1844515.43 79.71 
957896.75 1844493.58 76.66 
957906.86 1844495.37 79.66 
957903.31 1844485.5 80.02 
957764.35 1844485.94 69.31 
957755.31 1844478.88 78.68 
957752.68 1844466.99 76.92 
957745.35 1844495.61 89.73 
957755.63 1844493.03 77.23 
957746.41 1844487.21 88.11 
957746.6 1844473.25 83.51 
957745.32 1844479.56 85.4 
957748.48 1844503.39 84.18 
957768.16 1844477.1 67.81 
957773.86 1844467.95 64.91 
957763.32 1844467.98 70.59 
957927.88 1844079.59 43.3 
957937.29 1844075.44 43.27 
957946.64 1844071.31 43.04 
957955.94 1844067.18 49.06 
957965.18 1844063.07 58.62 
957928.91 1844087.16 43.44 
957938.2 1844084.02 43.48 
957947.37 1844080.92 43.13 
957956.42 1844077.83 46.02 
957965.36 1844074.78 52.39 
957929.94 1844094.73 43.6 
957939.1 1844092.61 43.66 
957948.09 1844090.53 43.49 
957956.9 1844088.48 43.67 
957965.55 1844086.48 51.98 
957930.98 1844102.3 43.7 
957940.01 1844101.19 43.7 
957948.8 1844100.13 43.53 
957956.99 1844099.11 45.22 
957965.73 1844098.19 52.02 
957932.01 1844109.87 43.72 
957939.47 1844109.67 43.61 
957947.6 1844109.62 43.33 
957956.42 1844109.69 46.36 
957965.92 1844109.9 51.11 
957929.26 1844119.82 43.74 
957937.39 1844120.05 43.58 
957946.24 1844120.43 43.43 
957955.81 1844120.94 47.02 
957966.1 1844121.6 50.16 
957926.51 1844129.77 43.75 
957935.31 1844130.43 43.54 
957944.87 1844131.24 43.88 
957955.2 1844132.2 47.83 
957966.29 1844133.31 51.49 
957923.75 1844139.72 43.78 
957933.26 1844140.65 43.51 
957943.54 1844141.73 43.96 
957953.0 1844142.66 48.29 
957962.07 1844143.51 50.08 
957921.0 1844149.67 43.79 
957930.73 1844150.77 43.56 
957940.12 1844151.82 44.08 
957949.15 1844152.8 48.25 
957957.85 1844153.72 50.05 
957918.25 1844159.62 43.81 
957927.62 1844160.79 43.56 
957936.54 1844161.86 44.49 
957945.01 1844162.83 48.12 
957953.63 1844163.93 50.03 
957915.49 1844169.57 43.81 
957923.75 1844170.52 43.61 
957932.15 1844171.59 44.14 
957940.7 1844172.8 47.13 
957949.41 1844174.14 49.7 
957910.4 1844179.97 43.84 
957918.88 1844180.88 43.63 
957927.5 1844181.91 43.77 
957936.27 1844183.06 46.52 
957945.19 1844184.34 50.58 
957905.3 1844190.37 43.86 
957914.01 1844191.24 43.71 
957922.86 1844192.22 43.74 
957931.84 1844193.33 46.59 
957940.97 1844194.55 49.83 
957900.21 1844200.78 43.91 
957909.14 1844201.6 43.78 
957918.21 1844202.53 43.72 
957927.41 1844203.59 46.38 
957936.75 1844204.76 51.25 
957895.11 1844211.18 43.97 
957904.18 1844212.16 43.85 
957913.37 1844213.25 43.74 
957922.61 1844214.42 46.69 
957931.92 1844215.68 50.12 
957890.02 1844221.58 44.08 
957899.18 1844222.7 43.88 
957908.41 1844223.91 43.82 
957917.66 1844225.18 46.57 
957927.1 1844226.6 51.14 
957884.92 1844231.98 44.73 
957893.95 1844233.12 43.9 
957903.18 1844234.43 43.87 
957912.62 1844235.89 46.34 
957922.28 1844237.52 50.56 
957879.56 1844241.56 45.43 
957888.7 1844243.02 43.94 
957898.07 1844244.66 43.82 
957907.65 1844246.47 45.95 
957917.45 1844248.44 50.46 
957874.19 1844251.13 46.36 
957883.46 1844252.92 44.03 
957892.96 1844254.89 43.87 
957902.68 1844257.04 45.43 
957912.63 1844259.36 50.11 
957868.82 1844260.7 46.89 
957878.22 1844262.82 44.18 
957887.85 1844265.13 43.91 
957897.71 1844267.61 44.71 
957907.81 1844270.28 49.79 
957863.45 1844270.27 47.96 
957872.97 1844272.72 44.78 
957882.74 1844275.36 43.95 
957892.74 1844278.19 44.33 
957902.98 1844281.2 49.74 
957858.08 1844279.84 49.21 
957867.73 1844282.62 45.35 
957877.75 1844285.66 43.97 
957888.05 1844288.89 44.44 
957898.16 1844292.12 49.87 
957852.71 1844289.41 49.12 
957863.18 1844292.78 45.75 
957873.46 1844296.14 44.07 
957883.45 1844299.44 44.32 
957893.15 1844302.68 48.55 
957849.06 1844299.1 50.26 
957859.26 1844302.71 45.71 
957869.17 1844306.27 44.09 
957878.8 1844309.79 44.09 
957888.15 1844313.25 47.63 
957845.41 1844308.79 51.45 
957855.28 1844312.62 45.88 
957864.86 1844316.4 44.1 
957874.15 1844320.13 44.2 
957883.14 1844323.81 48.61 
957841.76 1844318.47 50.01 
957851.31 1844322.53 46.31 
957860.56 1844326.53 44.2 
957869.5 1844330.48 44.18 
957878.13 1844334.37 47.97 
957838.1 1844328.16 51.9 
957847.34 1844332.44 46.52 
957856.25 1844336.66 44.29 
957864.83 1844340.82 44.25 
957873.13 1844344.94 48.04 
957834.45 1844337.85 50.34 
957843.36 1844342.35 46.88 
957851.85 1844346.75 44.35 
957860.08 1844351.13 44.31 
957868.12 1844355.5 47.53 
957830.8 1844347.53 50.72 
957839.18 1844352.17 46.94 
957847.36 1844356.81 44.49 
957855.34 1844361.44 44.37 
957863.11 1844366.06 49.95 
957826.6 1844357.55 50.49 
957834.79 1844362.33 47.46 
957842.77 1844367.1 44.61 
